244.97 360.94 351
332.7 273.69 351
346.19 686.52 351
401.21 238.13 351
641.02 653.25 351
665.1 628.15 351
703.5 591.93 351
775.71 315.07 351
794.36 401.55 351
246.2 354.16 352
303.16 295.45 352
342.33 691.49 352
395.67 241.2 352
438.19 228.11 352
697.05 589.8 352
772.55 340.96 352
772.82 419.66 352
258.37 336.01 353
285.17 308.88 353
309.96 683.26 353
354.29 700.28 353
393.68 245.72 353
451.54 227.61 353
658.36 627.64 353
748.1 534.69 353
768.64 481.9 353
284.02 669.51 354
359.44 704.58 354
394.85 246.85 354
469.35 227.48 354
654.05 628.81 354
736 551.49 354
261.89 656.47 355
367.83 710.18 355
393.71 250.67 355
486.85 229.28 355
596.57 655.19 355
650.44 629.59 355
717.34 573.29 355
751.53 511.55 355
766.99 464.48 355
238.01 636.19 356
370.99 712.41 356
396.06 252.07 356
506.8 232.2 356
521.88 694.07 356
650.61 627.77 356
699.49 590.64 356
760.64 462.38 356
175.72 445.56 357
180.46 498.7 357
219.84 625.9 357
384.95 720.79 357
387.99 256.71 357
488.27 707.26 357
518.86 237.05 357
570.08 674.79 357
728.22 537.83 357
754.12 468.67 357
178.25 443.06 358
180.44 540.15 358
192.39 409.77 358
205.8 614.29 358
391.1 259.18 358
403.24 722.58 358
449.73 718.41 358
553.34 686.01 358
579.98 666.65 358
719.37 538.06 358
720.3 354.94 358
744.92 460.78 358
179.78 435.87 359
185.37 567.69 359
200.59 387.74 359
369.17 270.18 359
549.07 683.47 359
583.21 664.74 359
709.67 553.68 359
743.39 478.02 359
204.03 383.52 360
344.84 279.04 360
418.61 265.34 360
504.41 700.13 360
539.03 686.08 360
580.05 662.92 360
691.41 569.62 360
729.89 463.02 360
717.9 385.06 360
212.59 367.54 361
328.82 282.59 361
424.49 268.03 361
534.82 688.24 361
582.87 656.41 361
178.16 443.53 361
663.93 588.96 361
692.41 558.98 361
720.9 430.04 361
225.96 344.48 362
323.13 280.03 362
439.15 269.84 362
521.74 690.69 362
576.59 654.08 362
647.75 369.8 362
660.61 445.78 362
669.65 402.31 362
686.67 549.03 362
650.43 599.46 362
168.06 427.7 363
235.78 329.48 363
269.12 306.44 363
318.83 281.06 363
453.15 272.74 363
514.02 693.14 363
670.52 414.46 363
679.19 548.38 363
578.47 653.43 363
645.93 608.45 363
167.94 421.69 364
246.36 312.85 364
304.83 281.06 364
467.58 278.79 364
500.67 694.78 364
569.87 648.52 364
626.75 612.37 364
655.58 402.32 364
667.51 552.29 364
671.97 449.05 364
162.95 416.69 365
283.58 287.79 365
488.53 285.09 365
490.97 696.3 365
570.83 644.15 365
645.23 409.96 365
664.35 463.98 365
612.95 615.95 365
659.43 546.98 365
160.11 415.46 366
469.11 702.55 366
497.32 294.7 366
615.88 397.93 366
638.47 414.93 366
647.91 555.32 366
657.77 477.21 366
594.96 629.44 366
145.44 449.02 367
162.99 403.62 367
174.04 652.04 367
433.57 714.64 367
496.34 689.08 367
646.7 485.99 367
636.94 554.48 367
627.94 418.05 367
139.83 450.78 368
149.88 402.11 368
156.86 623.99 368
177.75 367.78 368
188.86 668.2 368
239.19 700.63 368
403.31 721.74 368
489.63 689.61 368
578.46 583.35 368
623.79 517.04 368
618.95 424.04 368
131.25 466.03 369
140.56 587.28 369
182.34 658.48 369
182.64 357.47 369
270.05 711.77 369
373.32 727.39 369
492.23 687.65 369
563.08 610.68 369
584.6 580.07 369
595.36 551.96 369
121.87 489.44 370
129.35 567.91 370
181.69 356.85 370
288.28 721.78 370
356.1 730.89 370
488.36 686.15 370
554.93 619.6 370
580.23 585.34 370
598.8 552.01 370
598.92 431.07 370
184.16 662.43 370
122.72 530.22 371
345.14 289.9 371
348.56 779.72 371
489.49 685.29 371
552.1 625.31 371
599.37 550.1 371
606.66 462.47 371
176.66 659.43 371
190.16 343.08 371
193.42 337.34 372
321.78 288.87 372
409.3 293.37 372
490.55 683.7 372
547.16 631.71 372
577.74 592.35 372
598.86 553.11 372
608.01 470.09 372
172.17 662.43 372
197.83 331.48 373
375.05 284.83 373
491.8 683.06 373
520.23 661.5 373
540.34 637.99 373
574.89 597.33 373
597.81 555.87 373
606.67 478.56 373
425.54 302.6 373
290.61 292.11 373
172.17 662.43 373
164.6 660.41 374
201.94 326.12 374
271.86 300.45 374
364.57 287.28 374
421.14 302.6 374
447.69 309.77 374
494.07 679.94 374
531.93 646.08 374
574.22 600.47 374
597.57 556.34 374
603.85 484.14 374
163.34 662.72 375
228.82 310.64 375
260.33 296.99 375
367.74 281.83 375
453.94 313.82 375
495.82 673.55 375
528.91 649.51 375
571.1 605.9 375
594.62 561.23 375
603.96 494.51 375
156.12 657.72 376
361.62 281.18 376
512.08 659.91 376
569.41 609.82 376
592.18 562.16 376
602.46 494.51 376
138.52 651.3 377
152.62 657.85 377
570.96 611.99 377
592.65 560.38 377
594.96 505 377
130.05 631.71 378
172.28 685.3 378
360.68 274.2 378
564.67 619.4 378
597.96 530.49 378
119.7 622.15 379
174.9 695.01 379
358.1 273.08 379
364.12 745.75 379
403.16 742.45 379
566 621.72 379
593.46 540.99 379
109.13 602.56 380
179.22 697.87 380
325.59 740.66 380
366.58 264.62 380
380.3 741.82 380
417.07 731.14 380
542.05 653.37 380
579.08 601.54 380
587.46 418.05 380
99.35 578.25 381
180.28 699.08 381
359.93 264.91 381
371.48 742.13 381
421.66 725.94 381
535.55 661.86 381
583.21 599.3 381
289.11 737.39 381
90.552 559.57 382
117.6 411.39 382
188.99 707.65 382
257.58 737.14 382
340.38 259.78 382
368.47 742.95 382
376.42 258.19 382
429.9 726.44 382
528.91 669.96 382
584.84 598.49 382
586.2 384.52 382
604.67 420.58 382
90.267 549.84 383
104.88 438.02 383
135.04 365.31 383
163.3 336.76 383
206.85 718.64 383
239.07 736.83 383
334.27 257.69 383
366.72 746.23 383
406.16 262.96 383
437.53 725.44 383
523.43 677.1 383
587.21 596.84 383
599.87 397.83 383
614.82 445.78 383
87.421 522.05 384
89.366 483.52 384
136.82 370.74 384
172.32 329.71 384
321.72 257.12 384
358.39 744.15 384
413.79 262.44 384
438.12 722.01 384
588.12 595.89 384
596.09 394.81 384
618.15 463.59 384
515.5 683.42 384
137.95 371.45 385
186.81 318.16 385
307.2 260.45 385
357.53 747.51 385
420.17 266.12 385
447.6 721.43 385
505.85 692.86 385
594.71 589.18 385
595.51 394.83 385
609.07 431.46 385
619.08 476.68 385
141.64 362.02 386
208.88 295.18 386
305.19 254.09 386
360.92 752.56 386
442.13 264.23 386
488.06 706.22 386
596.64 584.19 386
601.73 400 386
620.68 500.42 386
143.39 361.03 387
224.5 283.05 387
289.78 255.38 387
349.17 748.85 387
426.46 257.98 387
454.1 266.16 387
598.25 581.35 387
601.36 400.53 387
620.14 513.78 387
147.1 351.02 388
243.9 267.45 388
279.48 256.99 388
348.99 750.15 388
607.6 406.91 388
610.08 545.25 388
618.09 446.11 388
147.21 355.64 389
342.57 746.41 389
609.04 409.36 389
151.55 350.1 390
300.87 749.52 390
377.06 757.52 390
520.13 701.06 390
560.64 662.62 390
611.58 413.48 390
104.46 625.05 391
114.36 645.5 391
154.22 343.7 391
379.53 753.56 391
508.57 708.12 391
546.24 679.65 391
574.06 645.32 391
612.4 415.06 391
283.11 746.39 391
86.03 561.77 392
93.801 597.16 392
127.32 651.86 392
137.08 362.61 392
159.7 334.73 392
175.36 315.95 392
257.15 742.25 392
382.78 755.05 392
495.76 717.8 392
542.59 683.46 392
576.74 643.87 392
621.49 432.37 392
84.1 536.89 393
128.34 376.09 393
187.17 308.04 393
227.21 734.87 393
386.18 755.12 393
477.1 726.86 393
536.69 688.24 393
582.27 637.01 393
600.29 391.98 393
611.05 419.43 393
631.59 474.43 393
97.203 597.96 393
148.18 681.92 393
78.682 458.14 394
84.418 506.98 394
116.31 391.67 394
164.71 693.81 394
177.75 713.59 394
199.31 296.29 394
392.87 755.83 394
429.48 751.15 394
466.05 735.82 394
535.47 690.78 394
589.04 631.18 394
598.31 385.32 394
633.39 489.5 394
98.702 593.46 394
105.51 408.32 395
399.9 756.34 395
457.82 743.28 395
533.03 694.65 395
591.91 627.4 395
594.13 375.69 395
634.51 509.92 395
71.884 451.93 396
101.16 581.17 396
216.22 260.27 396
371.97 236.66 396
406.95 230.97 396
410.54 752.56 396
431.6 243.46 396
441.27 747.99 396
532.84 698.51 396
595.1 372.14 396
599.88 619.3 396
619.23 574.6 396
630.99 531.68 396
631.99 490.58 396
65.718 452.53 396
350.12 235.32 397
430.4 233.22 397
524.96 701.97 397
587.9 363.05 397
599.71 618.86 397
626.32 550.05 397
630.98 510.95 397
239.63 259.12 397
249.57 256.13 398
284.5 769.71 398
324.86 238.93 398
422.75 238.58 398
444.88 243.67 398
526.27 710.02 398
589.75 359.74 398
614.58 580.61 398
629.26 525.76 398
97.504 576.31 399
290.63 775.73 399
310.35 237.65 399
318.78 776.21 399
432.99 237.57 399
523.6 710.13 399
591.53 358.64 399
96.12 563.87 400
103.84 605.21 400
225.53 743.46 400
276.3 772.64 400
320.02 774.57 400
433.48 239.02 400
509.48 718.35 400
