239.96 316 301
300.03 226.37 301
366.64 177.88 301
400.93 622.43 301
420.3 161.44 301
592.54 170.97 301
662.06 204.02 301
732.2 529.55 301
775.8 429.11 301
775.95 354.67 301
255.78 288.95 302
304.64 227.01 302
381.84 174.34 302
399.4 619.8 302
443.28 158.63 302
589.39 170.02 302
737.97 521.74 302
770.46 351.97 302
774.97 431.63 302
249.47 291.73 303
286.59 242.09 303
364.79 606.43 303
367.83 180.49 303
397.7 620.97 303
440.04 160.47 303
581.65 167.68 303
742.71 518.3 303
772.85 357.02 303
773.99 476.83 303
775.71 440.53 303
370.07 606.95 303
278.36 255.04 304
351.2 597.53 304
372.48 181.41 304
394.76 620.85 304
453.67 161.39 304
577.4 169.37 304
747.92 515.73 304
775.31 361.64 304
776.1 450.91 304
375.86 183.4 305
382.58 618.19 305
425.92 630.08 305
472.16 162.53 305
576.3 171.35 305
755.56 501.72 305
773.19 467.67 305
778.5 367.68 305
355.86 606.67 306
379.8 183.17 306
441.4 633.23 306
483.87 163.89 306
528.55 163.09 306
569.3 172.95 306
776.8 365.42 306
344.28 600.33 307
376.49 185.91 307
410.7 622.63 307
454.34 635.88 307
488.38 165.09 307
531.53 155.7 307
670.71 601.45 307
777.51 365.56 307
226.05 439.32 308
331.25 594.63 308
362.83 607.55 308
377.43 189.18 308
465.1 637.7 308
619.63 618.8 308
664.74 604.33 308
780.85 373.89 308
527.49 169.17 308
227.19 399.27 309
230.71 360.83 309
238.31 468.53 309
284.52 553.02 309
312.46 578.31 309
379.41 193.7 309
480.81 640.8 309
556.03 159.31 309
580.83 633.38 309
677.49 601.06 309
708.69 573.94 309
782.08 382.38 309
226.74 401.05 310
236.47 347.86 310
251.11 504.23 310
302.99 574.99 310
357.74 208 310
395.09 187.16 310
500.48 642.98 310
562.82 640.11 310
678.18 604.02 310
712.04 575.98 310
774.02 335.24 310
784.43 389.97 310
227.74 398.58 311
242.24 334.93 311
255.21 510.48 311
287.85 558.48 311
350.23 211.13 311
418.89 179.1 311
536.09 643.29 311
678.82 597.12 311
719.33 564.67 311
783.57 366.02 311
785.26 420.46 311
225.18 406.83 312
241.59 329.81 312
328.04 223.73 312
422.17 177.54 312
630.53 190.07 312
676.06 600.21 312
724.65 561.74 312
783.04 355.23 312
786.23 428.23 312
227.37 400.28 313
253.04 310.49 313
329.03 224.2 313
445.49 169.05 313
620.83 184.84 313
677.76 595.68 313
732.4 545.85 313
779.26 346.25 313
783.55 431.47 313
227.6 402.61 314
261.85 294.38 314
290.36 260.37 314
323.85 228.3 314
453.99 165.56 314
676.41 596.64 314
736.77 544.67 314
783 348.67 314
784.79 440.33 314
226.79 403.57 315
264.35 287.52 315
311.2 237.93 315
602.78 171.86 315
675.21 599.3 315
740.82 541.26 315
781.93 345.59 315
784.77 444.97 315
458.53 158.67 315
233.01 396.42 316
295.33 255.34 316
465.05 143.3 316
592.89 167.13 316
673.55 596.58 316
745.53 531.12 316
779.67 342.48 316
782.59 449.85 316
467.52 139.18 316
231.2 396.32 317
384.68 620.92 317
452.62 146.77 317
481.22 142.29 317
538.65 151.54 317
587.75 163.97 317
672.03 596.49 317
751.71 522.75 317
779.7 342.99 317
780.87 458.9 317
227.77 427.13 318
230.37 399.62 318
337.65 601.12 318
377.7 622.01 318
428.14 633.27 318
493.32 154.9 318
573.84 158.94 318
668.39 599.54 318
754.65 523.8 318
778.32 466.45 318
779.37 342.43 318
232.41 405.29 319
236.68 460.82 319
323.56 591.98 319
374.83 621.88 319
434.89 634.67 319
519.03 132.46 319
559.46 128.81 319
571.07 155.64 319
664.8 600.14 319
690.44 582.03 319
772.77 495.39 319
778.45 342.33 319
235.79 437.24 320
239.7 357.46 320
304.69 574.17 320
333.32 600.27 320
371.5 618.96 320
452.82 637.73 320
612.51 619.5 320
667.97 594.42 320
775.34 337.02 320
549.98 151.18 320
239.52 460.92 321
243.2 351.01 321
372.89 621.15 321
473.74 642.77 321
534.95 643 321
598.15 627.94 321
686.55 587.39 321
283.11 566.47 321
243.36 483.45 322
249.49 334.57 322
281.22 558.75 322
372.83 622.48 322
483.08 646.26 322
571.45 638.3 322
688.9 591.67 322
779.56 338.72 322
254.67 512.44 323
254.95 322.93 323
285.66 563.57 323
372.72 173.63 323
374.56 624.02 323
416.91 141.06 323
508.3 647.01 323
558.89 642.13 323
673.75 595.75 323
698.18 584.47 323
787.25 451.57 323
794.04 434.89 323
260.04 318.75 324
369.97 174.35 324
379.93 625.45 324
385.4 155.92 324
422.38 136.45 324
554.86 645.75 324
682.92 596.1 324
706.99 581.05 324
799.59 440.32 324
269.8 313.31 325
370.78 176.64 325
390.76 629.3 325
697.15 583.88 325
719.07 569.35 325
802.85 431.51 325
273.87 310.82 326
368.46 179.29 326
399 150.26 326
401.03 633.3 326
597.68 628.36 326
706.17 582.03 326
727.28 567.71 326
807.4 354.58 326
281.01 307.27 327
295.14 565.04 327
365.07 185.89 327
406.49 634.48 327
715.83 580.31 327
736.62 565.74 327
413.55 140.68 327
288.98 295.74 328
361.08 194.11 328
416.22 637.35 328
423.74 137.99 328
728.36 575.38 328
747.36 558.03 328
291.31 290.96 329
310.02 251.68 329
350.39 205.69 329
424.49 640.45 329
736.87 562.24 329
755.78 548.99 329
819.36 435.12 329
416.55 142.18 329
458.53 127.19 329
284.8 317.2 330
294.54 286.83 330
331.75 227.35 330
427.76 642.56 330
762.22 550.08 330
832.51 385.73 330
418.05 140.68 330
461.52 127.19 330
322.14 248.87 331
426.73 641.88 331
769.06 541.56 331
821.12 301.74 331
839.64 381.71 331
421.04 142.18 331
479.52 122.69 331
392.36 634.63 332
470.17 653.22 332
774.72 533.07 332
839.5 399.5 332
839.8 349.42 332
425.54 152.68 332
494.51 124.19 332
266.44 415.59 333
272.26 483.68 333
382.29 632.27 333
422.6 647.72 333
479.62 656.52 333
778.39 532.68 333
841.14 404.83 333
844.42 351 333
844.88 320.28 333
418.05 154.17 333
505 121.19 333
266.69 439.48 334
266.74 405.32 334
277.18 510.36 334
362.61 623.69 334
397.15 640.65 334
489.81 659.19 334
783.44 529.76 334
840.96 415.5 334
842.73 313.42 334
852.59 350.71 334
418.05 160.17 334
511 112.2 334
264.11 450.51 335
270.8 390.75 335
284.05 542.06 335
348.24 620.8 335
503.16 661.69 335
786.53 527.98 335
840.37 431.86 335
847.8 313.49 335
850.47 359.77 335
415.05 160.17 335
531.99 119.69 335
262.89 451.11 336
273.36 379.99 336
289.25 560.86 336
516.66 663.45 336
790.09 519.66 336
815.54 490.56 336
836.22 437.76 336
838.2 393.52 336
847.57 359.71 336
847.79 306.92 336
415.05 155.67 336
548.48 112.2 336
261.35 455.81 337
276.38 368.56 337
528.14 665.89 337
662.55 624.34 337
795.1 510.46 337
419.55 160.17 337
558.98 106.2 337
837.84 439.04 337
845.34 353.58 337
843.84 293.61 337
259.48 454.42 338
279.96 358.34 338
417.73 166.85 338
541.05 666.44 338
634.78 638.03 338
716.79 589.79 338
807.86 490.01 338
833.34 449.53 338
834.84 356.58 338
837.84 290.61 338
566.47 110.7 338
257.03 454.84 339
278.81 353.98 339
396.18 184.53 339
563.82 664.37 339
610.78 651.53 339
709.47 601.06 339
733.19 578.17 339
813.21 472.78 339
839.6 361.39 339
836.34 292.11 339
584.46 121.19 339
253.3 457.43 340
287.82 336.57 340
340.36 623.75 340
372.28 211.84 340
410.31 178.01 340
706.83 600.71 340
830.34 355.08 340
831.84 274.12 340
251.43 456.35 341
287.31 330.15 341
357.69 225.31 341
419.63 171.03 341
703.84 603.04 341
740.43 568.94 341
831.55 366.35 341
827.35 281.61 341
247.59 459.05 342
289.89 323.55 342
342.93 244.3 342
439.63 169.06 342
700.92 607.85 342
741.78 566.36 342
830.28 374.75 342
824.35 278.61 342
792.86 223.14 342
243.73 467.98 343
298.95 312.12 343
324.59 266.83 343
391.12 668.64 343
448.07 166.52 343
698.33 609.59 343
743.11 562.91 343
826.44 385.02 343
829.93 312 343
825.85 277.11 343
239.19 470 344
243.45 517.66 344
315.66 277.93 344
348.9 656.8 344
401.27 677.25 344
446.55 681.39 344
456.64 165.25 344
691.91 614.81 344
744.37 559.76 344
814.39 425.3 344
822.19 388.51 344
804.86 256.13 344
238.56 519.57 345
240.18 431.23 345
315.87 641.35 345
438.34 210.2 345
450.06 683.09 345
471.83 163.43 345
683.3 618.56 345
741.92 560.15 345
810.11 446.55 345
822.85 386.56 345
236.02 546.54 346
239.44 424.32 346
290.44 630.99 346
423.38 681.05 346
460.02 685.66 346
678.56 623.08 346
740.13 563.09 346
770.84 525.82 346
799.58 469.99 346
822.85 377.57 346
479.52 160.17 346
234.61 564.24 347
238.73 413.23 347
269.18 618.6 347
380.81 680.95 347
472.51 690 347
590.8 146.13 347
670.84 628.6 347
742.91 554.44 347
789.83 483.28 347
815.92 382.13 347
236.55 406.92 348
375.44 683.41 348
480.41 694.17 348
600.91 661.22 348
658.76 634.54 348
742.57 548.98 348
810.77 390.51 348
777.87 508 348
771.87 242.63 348
238.91 387.33 349
360.38 681.64 349
500 694.23 349
542.36 684.14 349
571.39 673.42 349
668.55 626.11 349
804.79 394.92 349
768.87 269.62 349
530.49 164.67 349
243.01 368.21 350
354.11 684.13 350
362.86 254.92 350
668.36 625.6 350
773.51 294.02 350
800.36 394.06 350
