84.909 546.6 401
102.9 599 401
275.48 769.16 401
441.63 240.03 401
482.61 738.43 401
536.85 698.52 401
329.59 777.87 401
205.15 735.89 401
87.429 519.77 402
103.41 607.44 402
443.51 239.86 402
461.5 745.76 402
536.51 694.52 402
329.59 774.87 402
263.62 770.37 402
178.16 719.4 402
88.043 498.6 403
110.42 623.99 403
443.25 754.53 403
449.63 242.2 403
540.63 692.16 403
631.81 465.7 403
633.6 525.92 403
329.59 780.87 403
251.63 759.88 403
158.67 696.91 403
88.526 484.56 404
113.27 637.51 404
428.81 760.73 404
456.77 240.77 404
541.01 689.7 404
622.74 434.61 404
630.29 541.75 404
637.58 485.15 404
338.58 776.37 404
257.62 764.38 404
90.737 464.46 405
118.6 649.31 405
454.44 242.63 405
543.94 685.81 405
621.03 423.8 405
622.87 568.62 405
637.72 492.93 405
407.55 764.38 405
332.59 774.87 405
242.63 758.38 405
95.926 439.81 406
168.22 306.58 406
208.71 270.12 406
467.99 243.62 406
547.5 681.94 406
612.18 592.64 406
620.32 414.16 406
637.77 504.04 406
236.63 755.38 406
341.58 773.37 406
389.56 774.87 406
98.86 428.68 407
119.15 382.98 407
153.83 327.63 407
206.6 273.64 407
242.34 251.83 407
438.86 240.81 407
464.81 239.53 407
551.48 676.27 407
583.15 648.56 407
599.6 367.93 407
603.94 608.64 407
616.41 402.14 407
637.62 505.99 407
101.68 403.54 408
143.36 339.99 408
297.87 224.65 408
442.7 237.52 408
554.24 672.92 408
597.63 618.45 408
613.26 391.96 408
636.65 514.53 408
214.15 257.62 408
265.12 235.14 408
117.64 375.07 409
280 236.88 409
430.85 236.73 409
573.11 648.86 409
609 383.69 409
634.09 518.88 409
221.64 755.38 409
217.14 263.62 409
190.69 737.08 410
422.07 234.23 410
456.11 754.58 410
604.46 375.84 410
632.03 527.28 410
296.61 230.64 410
218.64 263.62 410
239.63 764.38 410
314.92 236.4 411
363.45 229.85 411
407.46 235.45 411
418.69 767.91 411
457.94 751.46 411
630.03 531.04 411
244.13 767.38 411
173.67 731.39 411
71.448 546.57 412
80.048 543.26 412
332.56 233.63 412
397.37 772.63 412
398.08 234.7 412
446.99 759.58 412
479.56 739.24 412
627.72 535.84 412
239.63 765.88 412
152.68 719.4 412
71.299 504.38 413
75.477 569 413
442.08 762.58 413
485.75 736.25 413
616.34 494.61 413
623.5 541.74 413
253.13 776.37 413
139.18 699.91 413
68.939 588.77 414
70.391 542.23 414
71.67 502.92 414
79 595.87 414
82.962 463.09 414
437.78 764.33 414
491.37 732.02 414
613.25 567.08 414
367.07 788.37 414
251.63 783.87 414
119.69 692.41 414
72.329 593.14 415
72.621 499.72 415
82.815 612.07 415
87.272 447.43 415
97.209 672.15 415
293.67 804.51 415
428.24 764.08 415
490.23 728.79 415
597.6 601.77 415
615.3 473.84 415
618.37 539.31 415
340.08 791.36 415
251.63 783.87 415
73.823 620.81 416
92.848 430.45 416
426.94 766.51 416
498.94 724.62 416
590.61 615.65 416
618.57 524.46 416
326.59 788.37 416
257.62 788.37 416
70.216 491.51 416
92.54 423 417
415.85 765.43 417
498.82 719.27 417
503.33 273.76 417
581.92 623.74 417
619.5 521 417
262.12 786.87 417
302.6 789.86 417
73.214 487.01 417
182.66 296.61 417
104.52 405.51 418
414.81 767.86 418
480.49 265.38 418
506.58 713.98 418
562.61 651.02 418
620.18 508.23 418
289.11 795.86 418
185.66 301.1 418
286.11 244.13 418
412.34 767.93 419
469.82 262 419
512.1 709.78 419
556.48 657.67 419
620.72 499.97 419
148.18 319.09 419
307.1 250.13 419
159.77 769.22 420
454.55 257.84 420
529.06 686.56 420
620.91 488.28 420
404.55 770.37 420
149.68 334.09 420
319.09 251.63 420
343.09 243.31 421
447.03 256.59 421
600.8 400.05 421
620.64 476.75 421
398.56 774.87 421
167.67 756.88 421
127.19 725.4 421
71.715 475.02 421
145.18 344.58 421
52.141 468.7 422
159.8 755.76 422
365.69 244.28 422
391.45 769.59 422
436.14 255.58 422
618.39 463.56 422
110.7 698.41 422
70.216 463.02 422
385.57 243.37 423
609.24 433.31 423
377.57 770.37 423
169.17 749.38 423
107.7 695.41 423
67.217 467.52 423
412.05 759.88 424
344.58 777.87 424
184.16 761.38 424
92.705 672.92 424
59.721 503.5 424
71.715 457.03 424
81.905 427.58 425
409.05 759.88 425
334.09 777.87 425
187.16 756.88 425
82.21 657.93 425
52.225 512.5 425
579.27 608.32 426
415.05 752.38 426
311.6 782.37 426
194.66 762.88 426
68.717 641.44 426
46.228 518.5 426
85.209 415.05 426
518.5 289.11 426
44.73 533 427
555.43 641.47 427
591.44 576.24 427
419.55 755.38 427
284.61 783.87 427
190.16 759.88 427
58.222 621.95 427
88.207 406.05 427
265.12 268.12 427
45.764 605.17 428
540.69 655.61 428
593.29 564.18 428
424.04 747.89 428
275.62 783.87 428
203.65 758.38 428
35.733 533.49 428
97.203 386.56 428
242.63 278.61 428
296.61 262.12 428
33.804 535.57 429
38.248 570.45 429
511.76 295.76 429
523.43 669.78 429
596.31 547.5 429
424.04 743.39 429
248.63 773.37 429
208.15 758.38 429
100.2 380.56 429
232.14 283.11 429
301.1 259.12 429
322.08 257.13 430
220.14 275.62 430
112.2 352.08 430
214.15 768.87 430
427.04 741.89 430
508 680.42 430
599.46 530.49 430
130.89 315.64 431
148.99 312.92 431
491.51 696.91 431
427.04 734.39 431
206.65 278.61 431
335.59 250.13 431
540.99 311.6 431
599.46 524.49 431
467.52 710.4 432
602.46 509.5 432
521.5 311.6 432
343.08 251.63 432
185.66 281.61 432
124.19 331.09 432
516.01 306.11 433
596.34 440.45 433
352.08 250.13 433
179.66 289.11 433
597.96 503.5 433
361.25 249.84 434
585.73 419.29 434
599.46 479.52 434
508 295.11 434
368.65 251.96 435
588.97 442.23 435
591.48 456.58 435
500.51 295.11 435
371.22 253.27 436
581.23 425.96 436
426.89 263.77 437
467.52 290.61 437
380.56 256.13 437
386.7 261.56 438
454.03 283.11 438
412.05 277.11 439
